-1.288432793	-2.482038342	0.25717947
-1.832811485	-3.391230514	-0.00294827
-5.777413882	1.681032461	0.586970414
-2.241583278	-5.289136454	-0.520871884
-0.103226095	-1.01368855	0.945863982
0.850735243	-0.737632087	-0.471337817
-2.670855108	-1.478950055	1.660627713
-2.71926295	-4.939108774	-4.131748287
-1.331494199	-2.680936236	2.907406719
-0.585737868	-0.342695928	-1.54169497
-1.963110108	0.468549665	0.715845269
1.399024681	0.2297102	0.47187791
-2.401617037	-3.419984152	1.592285356
0.585426454	0.099956155	0.961672301
-3.342577574	1.084181039	-1.310691151
-3.365958929	-4.89548933	-4.474993297
-0.294403289	-2.517908528	1.840849179
-1.987014733	1.560173025	-0.26748249
-3.155962274	0.913043375	0.606965269
-2.221883236	0.233411606	1.097014958
-3.8603724	2.081457196	1.345358488
0.631409023	-0.585259053	-0.017333734
-1.674459396	-1.541887515	-2.10751383
-1.884348491	0.026395261	-3.137602457
-3.866405694	1.672513671	3.608909013
0.234221058	-0.300652895	-1.708315014
-1.866837065	-4.163642114	2.317312272
-0.752647789	-0.195927988	-1.443520186
-4.187054888	-0.517159431	-0.357375118
-0.320413644	-1.681086747	-0.053043276
-2.367754705	0.496048225	-0.251957048
-0.947929227	-2.258435653	-0.430291363
1.227260928	0.029722072	0.325646892
-1.021082743	0.035524276	-3.867218928
1.492352729	-0.035577525	0.92452729
1.612978791	0.937796985	0.192385072
-1.932551071	-2.583961004	0.33368693
-8.63038845	6.972785989	-2.78700845
1.299689611	-0.051551998	0.606177602
1.396411783	0.187837344	0.180757878
1.318070134	0.145005586	0.238230608
1.578529756	1.439832896	-3.68735228
0.522976638	-1.033913333	-0.985879997
-0.686074997	-1.545122403	1.898423436
-1.000452241	-0.797346642	1.843334623
0.899023283	-0.439841484	0.316995436
1.346699943	0.126724436	-0.179806183
1.521942178	0.1149116	0.065879868
-1.47953376	0.713080068	2.005681945
0.872325284	0.702474283	-0.45559006
1.565697373	0.355320285	0.486592451
1.31967317	-0.092871301	0.575706607
0.951577845	-0.013767825	0.591640928
1.568186315	0.345779425	0.345957147
0.876455679	0.039983375	0.515376617
-0.265154902	-2.043913343	2.021700498
1.776868145	0.401681072	0.607280669
0.805712418	-0.140778993	-1.026680102
1.064520158	0.454216051	-0.038844305
-8.04387879	7.106500888	1.715844338
3.726464116	2.100288327	-0.452589453
2.010766079	0.494341018	0.367494242
1.652981239	0.204748428	0.740886979
2.473664712	1.163328039	-0.100567669
2.230281833	0.667375996	0.550221641
3.44911725	2.679750655	-1.880544504
2.910325645	1.297663526	-0.538354031
2.352646306	1.057783455	-0.42724817
2.316289832	0.680426166	0.190081543
1.425145448	0.128019596	-0.282983829
1.52638832	0.448562056	0.106686475
1.456263029	0.439360612	0.702086398
2.232413749	0.803171899	0.248160798
-0.654033526	1.458482232	-0.628688729
2.071358867	0.267090587	0.58633519
3.009692797	1.521807207	-0.198789765
2.891185592	1.181017241	-0.76325114
2.060267231	0.524835599	0.486382339
4.032681311	2.145783491	-0.649609399
1.953366722	0.346204006	0.393981123
1.762364184	0.912676338	-0.871808469
1.481417008	0.249905226	0.421943866
2.084142704	0.510205147	0.85192916
2.897726022	1.273020836	-0.302619251